       -22.4388150865315         63.835072678211    -3.5268818527127
       -22.4393595397566        63.8350052083407    -3.44806348959553
       -22.4399040793535         63.834937727767    -3.34624632225875
       -22.4404484462067        63.8348702686001    -3.25288953185445
       -22.4409935686731        63.8348027157959    -3.17096625942266
       -22.4415380756072        63.8347352392699    -3.1132092880849
       -22.4420834880035         63.834667650537    -3.06567911201848
       -22.4426275330648        63.8346002312472    -3.0238374539217
       -22.4431711489899         63.834532865137    -2.97750038711497
       -22.4437151655571        63.8344654493784    -2.94356756062989
       -22.4442596187822        63.8343979795081    -2.92079560118042
       -22.4448040720072        63.8343305096378    -2.91430131319469
       -22.4454738854055        63.8342473153238    -2.90282692837639
        -22.446140234411        63.8341645513054    -2.89180382049491
       -22.4468076284952        63.8340816574827    -2.88841443301958
       -22.4478127509462        63.8339568160373    -2.88458261056693
       -22.4488229523967        63.8338313437536    -2.8792746990668
       -22.4498276724941        63.8337065522826    -2.87050390635375
       -22.4508323925915        63.8335817608116    -2.82103427579
       -22.4518371126889        63.8334569693406    -2.7111014624042
       -22.4528418327862        63.8333321778695    -2.58940501244705
       -22.4538466314842        63.8332073766359    -2.44905860239836
       -22.4548518789266        63.8330825196658    -2.28085409940229
       -22.4558565633936        63.8329577326203    -2.0605643857653
       -22.4568607131757        63.8328330119853    -1.81813848320383
       -22.4578653851972        63.8327082264856    -1.57790314414344
       -22.4588701533705        63.8325834290433    -1.40450479314494
       -22.4598748734679        63.8324586375722    -1.35873594588213
       -22.4608795935653        63.8323338461012    -1.41898949548373
        -22.461494425067        63.8314082900823    -1.6965531238219
       -22.4621020623768        63.8304935640675    -2.06539511238597
       -22.4627116280274        63.8295759351641    -2.45709498005685
       -22.4633238040966        63.8286543765844    -2.91149314072549
       -22.4639357655942        63.8277331410168    -3.46179899774341
              -22.464547               63.826813    -4.09686491541494
       -22.4667182396056        63.8269899150781    -3.81801955702732
             -22.4688842              63.8271664    -3.10031200558692
       -22.4710530900416        63.8273431236329    -2.45841032357129
             -22.4732214              63.8275198    -2.14290918648963
               -22.47539              63.8276965    -2.10291483892529
             -22.4775586              63.8278732    -2.25126734503287
       -22.4797269932294        63.8280498831521    -2.49927435531205
       -22.4818954275752        63.8282265696544    -2.75278129750545
       -22.4840657819239        63.8284034126007    -2.91479994455319
              -22.486233                63.82858    -2.92595188776672
       -22.4881951670733         63.828793377029    -2.85960851739934
             -22.4901504               63.829006    -2.79333370413542
             -22.4921091               63.829219    -2.71988117741254
       -22.4940689755074        63.8294321278313    -2.60291650551004
        -22.496027785259        63.8296451397662    -2.41109945901195
       -22.4979862384505        63.8298581129269    -2.1412122452529
             -22.4999439               63.830071    -1.81584430328868
       -22.5018973396125         63.830283427956    -1.46192889233079
       -22.5038520854525        63.8304959979585    -1.07479001524209
               -22.50582                63.83071    -0.730681176693486
       -22.5074317556468        63.8302940549516    -0.618009399215822
       -22.5090320565042        63.8298810660355    -0.520857678465941
            -22.51062975             63.82946875    -0.421283630420652
              -22.512233               63.829055    -0.374904622422217
             -22.5125043              63.8282198    -0.396561718239537
             -22.5127756              63.8273846    -0.425021352431787
       -22.5130466387684        63.8265502042042    -0.454160632236119
             -22.5133182              63.8257142    -0.5309236004549
             -22.5135895               63.824879    -0.644218108158049
       -22.5138608002714        63.8240437991646    -0.805079564139432
             -22.5141321              63.8232086    -0.99624759428972
             -22.5144034              63.8223734    -1.22958992478848
       -22.5146754704993        63.8215358280096    -1.51469543749361
              -22.514946               63.820703    -1.85401348846364
       -22.5176530463625        63.8203234471608    -1.88658500586892
              -22.520395               63.819939    0
            -22.52155425              63.8192005    0
       -22.5227138026089        63.8184618072231    0
            -22.52387275              63.8177235    0
        -22.525031611563        63.8169852474537    0
       -22.5263187081771        63.8164090963401    -0.48567854167903
             -22.5276054              63.8158332    -0.530163454215992
             -22.5288921              63.8152573    -0.770882064779968
             -22.5301788              63.8146814    -1.16808479363866
             -22.5314655              63.8141055    -1.73886016961153
             -22.5327522              63.8135296    -2.51897075178088
       -22.5340401969751        63.8129531195011    -3.3855578695033
       -22.5353272664754        63.8123770541205    -4.32791725934134
       -22.5366142692799        63.8118010185915    -5.18427040527246
              -22.537899               63.811226    -6.50972813678279
       -22.5401401666667              63.8110395    -7.85086955927123
       -22.5423813333333               63.810853    -8.31748152531118
             -22.5446225              63.8106665    -8.88622258811978
       -22.5468636666667                63.81048    -8.43105928028936
       -22.5490743514319        63.8102960365693    -7.45408433737596
              -22.551346               63.810107    -7.04014544044641
       -22.5512028346511        63.8089728066704    -7.40688814724311
              -22.551063               63.807865    -8.51532406090268
       -22.5509216737553        63.8067453765351    -9.99139582732284
       -22.5507725393439        63.8056190879404    -11.1829747510268
       -22.5494989545455        63.8049512727273    -12.528968396914
       -22.5482179090909        63.8042795454545    -14.1679484720601
       -22.5469368636364        63.8036078181818    -15.8664452596095
       -22.5456558181818        63.8029360909091    -22.4395078791756
       -22.5443747727273        63.8022643636363    -26.5792478534791
       -22.5430928768877        63.8015921904569    -30.9651364101129
       -22.5418119378565        63.8009205189881    -35.5400825550764
       -22.5405316363636        63.8002491818182    -40.2474687432627
       -22.5392505909091        63.7995774545454    -45.0110596441042
       -22.5379695454545        63.7989057272727    -57.8347568285114
             -22.5366885               63.798234    -58.0845384746723
       -22.5354074545455        63.7975622727273    -59.5069882697923
       -22.5341261564611        63.7968904129859    -62.0239158505152
       -22.5328453636364        63.7962188181818    -65.2859149371354
       -22.5315643181818        63.7955470909091    -68.9142595247953
       -22.5302832727273        63.7948753636364    -72.5942554456898
       -22.5290021544189        63.7942035981621    -76.1255769350883
       -22.5277211818182        63.7935319090909    -79.3976987910114
       -22.5264401363636        63.7928601818182    -82.3386866903294
       -22.5251590909091        63.7921884545455    -84.8813242232658
       -22.5238780454545        63.7915167272727    -86.9770729324659
       -22.5225867022403        63.7908438517828    -88.5529718684196
       -22.5206864173451        63.7906319668907    -90.2048679906432
       -22.5187750405154        63.7904188452295    -91.9552910686911
       -22.5168661428571               63.790206    -92.8761273743923
       -22.5149558571429               63.789993    -93.789700294713
       -22.5130455714286                63.78978    -94.6559408213358
       -22.5111352857143               63.789567    -95.5185673694318
       -22.5092247028901        63.7893539668718    -96.3833470471315
       -22.5073147142857               63.789141    -97.2328221011155
       -22.5054044285714               63.788928    -98.0379767866865
        -22.503492350691        63.7887148001705    -98.7694131606237
       -22.5015815350564        63.7885017410835    -99.4029640919553
       -22.4996711169078        63.7882887263169    -99.9319833904042
       -22.4977610435583        63.7880757499959    -100.363867799428
       -22.4958519103565         63.787862948844    -100.713209662285
             -22.4939136             63.78777195    -100.991002766616
             -22.4919742              63.7876809    -101.205242037769
             -22.4900348             63.78758985    -101.367325311232
             -22.4880954              63.7874988    -101.482461962019
              -22.486156             63.78740775    -101.553791052535
             -22.4842166              63.7873167    -101.590435811564
             -22.4822772             63.78722565    -101.607189335639
       -22.4803378873351        63.7871346041002    -101.618722241176
             -22.4783984             63.78704355    -101.633840600458
              -22.476459              63.7869525    -101.654831757154
       -22.4745194826202        63.7868614444893    -101.681341749427
       -22.4725800381294        63.7867703924006    -101.717838979247
       -22.4706406070051        63.7866793409394    -101.775427686578
       -22.4687012903719        63.7865882948532    -101.871166720796
       -22.4667615140086        63.7864972271839    -102.017854508771
       -22.4648211614239        63.7864061324624    -102.220791624813
       -22.4628808041297        63.7863150375199    -102.486347428117
       -22.4609395819516        63.7862239019731    -102.826475004695
       -22.4589997810176        63.7861328331503    -103.216794403747
       -22.4570635380416        63.7860421527019    -103.433535289873
          -22.4551226875            63.786244875    -103.337546743419
           -22.453180375             63.78644775    -103.136623490755
          -22.4512380625            63.786650625    -102.989030865989
            -22.44929575              63.7868535    -102.867119074131
          -22.4473534375            63.787056375    -102.716041830575
           -22.445411125             63.78725925    -102.507645101165
       -22.4434685806842        63.7874621492132    -102.250992354374
             -22.4415265               63.787665    -101.977711082245
          -22.4395841875            63.787867875    -101.713368228736
           -22.437641875             63.78807075    -101.477728035921
       -22.4356993779245         63.788273644279    -101.287414075693
            -22.43375725              63.7884765    -101.163468330623
       -22.4318129501675        63.7886795825774    -101.127796903865
       -22.4298698230377        63.7888825426656    -101.198092028539
       -22.4279325147929          63.78908489497    -101.35169162964
       -22.4260009236024        63.7892866501267    -101.366928700912
             -22.4241868              63.7898692    -101.088118838609
       -22.4223891913613        63.7904492411619    -100.617823666893
             -22.4205844              63.7910316    -100.005697095921
             -22.4187832              63.7916128    -99.2788930711822
              -22.416982               63.792194    -98.4004919017017
             -22.4151808              63.7927752    -97.2618271908649
             -22.4133796              63.7933564    -95.7156154950867
             -22.4115784              63.7939376    -93.546056101187
             -22.4097772              63.7945188    -91.4220468977322
              -22.407976                 63.7951    -89.4218291949942
       -22.4067457142857        63.7958177857143    -87.9549932591173
       -22.4055154285714        63.7965355714286    -86.3727445341592
       -22.4042851428571        63.7972533571428    -84.8235528527643
       -22.4030548571429        63.7979711428571    -83.3921123853386
       -22.4018244641789        63.7986889911441    -82.1073404835966
       -22.4005942857143        63.7994067142857    -80.9587501704656
              -22.399364              63.8001245    -79.8989606724479
       -22.3981337142857        63.8008422857143    -78.8749662023486
       -22.3969034285714        63.8015600714286    -77.836123613596
       -22.3956731428571        63.8022778571429    -76.7576194612695
       -22.3944429962402        63.8029955617036    -75.6442467683558
       -22.3932125714286        63.8037134285714    -74.5240265102267
       -22.3919843891797        63.8044299870607    -73.4389630533404
              -22.390752               63.805149    -72.3100994313629
             -22.3904253              63.8059707    -71.3787444461719
             -22.3900986              63.8067924    -66.9661274832477
        -22.389771796649        63.8076143599435    -66.4926474816089
       -22.3894446528647        63.8084371761281    -65.5245205131612
             -22.3891185              63.8092575    -64.3498548895406
             -22.3887918              63.8100792    -63.1798990977728
             -22.3884651              63.8109009    -62.1618308616046
       -22.3881383039644        63.8117228415441    -61.4162331700662
             -22.3878117              63.8125443    -60.74935635389
       -22.3874926580603        63.8133723612435    -60.2819818945298
             -22.3885261              63.8142308    -59.3466921426654
       -22.3895717605272         63.815099388247    -57.8194599588819
             -22.3906083              63.8159604    -55.7522449339157
        -22.391649819725        63.8168255486487    -52.6443369791271
             -22.3926905                63.81769    -48.7329196425691
             -22.3937316              63.8185548    -44.2830288531715
       -22.3947725739673        63.8194194953097    -39.5756681626861
             -22.3958138              63.8202844    -34.8520260389131
       -22.3968544400327        63.8211488179236    -30.2793712643854
       -22.3978951291814        63.8220132766459    -25.9667846125492
              -22.398918             63.82283525    -15.9991021918047
               -22.39994              63.8236565    -15.804028463756
       -22.4009625789133        63.8244782151982    -15.1991583202941
       -22.4019993682026        63.8253005156473    -14.4833231219833
       -22.4042051006251        63.8255180500226    -13.7903451465234
       -22.4064128880753        63.8257357870694    -13.2293984495215
        -22.408609436183        63.8259524156666    -12.6206832953344
       -22.4108080723075        63.8261692501888    -12.4763344563608
       -22.4121168042306        63.8268394376416    -12.2490605437052
       -22.4134259557685        63.8275098399746    -11.6212724443847
       -22.4147339901254        63.8281796702112    -10.5125791170476
              -22.416043                63.82885    -8.93721089265049
       -22.4163079863754        63.8292934187898    0.2
              -22.416578             63.82974525    0.2
             -22.4168455            63.830192875    0.2
              -22.417113              63.8306405    0.2
             -22.4173805            63.831088125    0.2
              -22.417648             63.83153575    0.2
             -22.4179155            63.831983375    0.2
       -22.4181810154117        63.8324276790604    0.2
       -22.4183613333333        63.8327294166667    0.2
       -22.4185396666667        63.8330278333333    0.2
              -22.418718             63.83332625    0.2
       -22.4188963333333        63.8336246666667    0.2
       -22.4190746666667        63.8339230833333    0.2
              -22.419253              63.8342215    0.2
       -22.4194313333333        63.8345199166667    0.2
       -22.4196096666667        63.8348183333333    0.2
       -22.4197879445371        63.8351166571903    0.2
       -22.4199663333333        63.8354151666667    0.2
       -22.4201446666667        63.8357135833333    0.716642513798455
              -22.420323               63.836012    0.665642420646042
       -22.4199419553182        63.8361834556103    0.766238089544334
       -22.4195610581029        63.8363548448663    0.589718175258464
       -22.4191800892688         63.836526266348    0.273089384837611
       -22.4187991190251         63.836697688464    0.217877642981456
       -22.4184181487814        63.8368691105801    -0.0726500886938766
       -22.4180371785377        63.8370405326961    -0.0065059791225057
        -22.417656208294        63.8372119548121    0.178606101750703
       -22.4172752380502        63.8373833769281    0.0495320776465367
       -22.4168942678065        63.8375547990441    -0.0729204944229695
       -22.4165132975628        63.8377262211601    -0.88637165120236
       -22.4161323273191        63.8378976432761    -0.970216241968633
       -22.4157513570753        63.8380690653921    -0.745323818908256
       -22.4153703868316        63.8382404875081    2.45949189538205
       -22.4149894165879        63.8384119096241    2.10483362735647
       -22.4146084463442        63.8385833317401    1.75609439784174
       -22.4142274761005        63.8387547538561    1.3536652879661
       -22.4144215759482        63.8390478349576    1.31995424856446
       -22.4146129770546        63.8393368410939    1.2836292147023
       -22.4148046055301        63.8396261905463    1.20212413774255
       -22.4149967022192        63.8399162469781    0.957229781676405
       -22.4151889600943        63.8402065467925    0.710167050616158
       -22.4153812456428        63.8404968883925    0.584587728071025
       -22.4155735317085        63.8407872307734    0.488722194045379
       -22.4157658253668        63.8410775846187    0.392852891696891
       -22.4159584147809        63.8413683850405    0.310256612876885
       -22.4161504126834        63.8416582923094    0.775402646794241
       -22.4163407915888        63.8419457549732    0.790703740158285
              -22.416535               63.842239    0.763798204212672
       -22.4172167907424        63.8422154598385    0.759955604838107
       -22.4178838929257        63.8421924268283    0.756646355628098
       -22.4185562338284         63.842169212941    0.754091039425388
       -22.4192298369679        63.8421459554725    0.74725259134198
       -22.4199034485944         63.842122697711    0.73613838796076
        -22.420576777755        63.8420994497022    0.724209769110173
       -22.4212501947056        63.8420761986623    0.70109166596204
       -22.4219238323732        63.8420529400017    0.66102369642261
       -22.4225975315586         63.842029679217    0.615548238586589
       -22.4232708651909        63.8420064310538    -999
         -22.42394445171        63.8419831741592    -999
       -22.4243273238251        63.8417015306212    0.791755475918568
       -22.4249462226892        63.8415320139123    0.832522520193341
       -22.4254559658102        63.8413798555058    0.866491360813428
       -22.4259404658094        63.8412289778771    0.948768382331961
        -22.426420752519        63.8410756657258    1.33645100275029
       -22.4269009054229        63.8409204217444    1.71832299924183
       -22.4273755743828        63.8407664957775    2.08629799641959
       -22.4278500990555        63.8406132747857    2.41417496786913
       -22.4361945731167         63.835148057994    -1.89090090654814
        -22.436747230871        63.8350842060262    -2.46520478218038
       -22.4372955317192        63.8350187511975    -3.08100453180192
        -22.437844457274        63.8349526231021    -3.47209968577074
       -22.4383917764224        63.8348856959449    -3.5708010038199
       -22.4389385228053        63.8348180551141    -3.52153335802619
       -22.4394843607217         63.834749686739    -3.42783242126969
       -22.4400262315127        63.8346811672344    -3.32764664584328
       -22.4405675370593        63.8346130427174    -3.23305563791677
       -22.4411075647133        63.8345453503612    -3.16964543504383
       -22.4416470929245        63.8344767593591    -3.11265463501072
       -22.4421890595649        63.8344076735211    -3.06877527908194
       -22.4427378962929        63.8343375396199    -3.01951144903129
       -22.4432830353578        63.8342644008684    -2.97948847105596
       -22.4438254911619        63.8341883061776    -2.94984354720243
       -22.4443859570976        63.8341068567353    -2.93020331508266
       -22.4283239228006        63.8404589297874    2.72996076546012
       -22.4287940897797        63.8403046690736    2.98710062110317
       -22.4292667390418        63.8401493445812    3.19565542622751
       -22.4297373553245        63.8399940694222    3.38889764849443
       -22.4302097782476        63.8398366558353    3.5449256617616
       -22.4306802421237        63.8396769186153    3.70419250151516
       -22.4311576205493        63.8395083175218    3.80186218803965
       -22.4317016381047        63.8393040418208    3.83092914915846
        -22.433766939612          63.83722748616    -0.572187897771893
       -22.4340109958613        63.8369737689603    -0.838974421751553
       -22.4342561949652        63.8367200403098    -1.03812190433931
       -22.4344999062897        63.8364660753158    -1.17445655320932
        -22.434740659951        63.8362138089754    -1.26065105471208
       -22.4349806741213        63.8359619019407    -1.31852815267133
       -22.4352149377416        63.8357105612509    -1.37292491250783
        -22.435435840481        63.8354587932242    -1.43466782639439
       -22.4320251569689         63.839010021676    4.07122723103913
       -22.4322897946182        63.8387509867151    4.25566909010765
       -22.4325406488816        63.8384968595755    1.0101686299506
       -22.4327874710516        63.8382432958742    0.909165360156225
       -22.4330329383828        63.8379894589437    0.560062863404687
       -22.4332780020914        63.8377354527186    0.15234285927165
       -22.4335227179557        63.8374813795542    -0.238206199460825
       -22.4449929446802        63.8340160942988    -2.92643748550553
       -22.4456569273643        63.8339173067848    -2.9138401135585
       -22.4463614047259        63.8338117859753    -2.90491417384502
       -22.4471660059818        63.8336909563337    -2.9079354829638
       -22.4480913160853        63.8335579767509    -2.90151644032117
       -22.4490518740147         63.833421322945    -2.90231048701216
       -22.4500356877693        63.8332815320258    -2.89239911140651
       -22.4510244293751        63.8331399417105    -2.82767360902076
       -22.4520105809129         63.833000712154    -2.7204135656607
       -22.4530228245302        63.8328588428724    -2.59909722582441
        -22.454050773112        63.8327228054395    -2.45596347132723
       -22.4550818147369          63.83258890073    -2.2847584067234
       -22.4560920334052        63.8324742463221    -1.99770323588306
       -22.4570600890512          63.83233111049    -1.77336375233099
       -22.4580882374594        63.8321623006908    -1.57388271606021
       -22.4590571861716         63.832085584706    -1.42848970377335
        -22.459954486732        63.8317594116563    -1.45870731886273
       -22.4875318191421        63.8279161748758    -3.0621930252405
       -22.4895482673529        63.8281355743451    -2.97164316311382
       -22.5054895335173         63.829904079539    -0.830299346535871
       -22.5072282174557        63.8294144262573    -0.727467783289069
       -22.5089907739773        63.8289942108885    -0.588176222224421
       -22.5107124241756        63.8285944561706    -0.46382167577195
       -22.5109273163777        63.8277311740145    -0.592257287249757
       -22.5112033765854        63.8268773456766    -0.641884033018076
       -22.5114964522667        63.8260336691071    -0.681981285262323
       -22.5117783241068        63.8252000417953    -0.754602863355987
       -22.5120564281339        63.8243661425838    -0.920807472910277
       -22.5123199543207         63.823527742167    -1.12040930667863
       -22.5125727777588        63.8226956732425    -1.35012552929424
       -22.5128039038434         63.821851008543    -1.63111286417188
       -22.5130377459267        63.8209933880506    -1.98072448824174
       -22.4915251007528         63.828355351956    -2.88927189585526
        -22.493505297488        63.8285749812485    -2.78171815469476
       -22.4954699805765        63.8287889155413    -2.60936671661806
       -22.4974273243679        63.8290038569731    -2.35763652103958
       -22.4993978368382        63.8292116301308    -2.03862896046402
       -22.5013877720947         63.829416868261    -1.6817139041369
       -22.5244133186823        63.8162393502129    -0.833845521369691
       -22.5257104937706         63.815636604651    -0.686848354270776
       -22.5270053217651        63.8150497084316    -0.752646368372495
       -22.5282957852171        63.8144698552618    -1.01674125617092
       -22.5295796755899        63.8138895903021    -1.43547686903967
       -22.5308602323261        63.8133099210182    -2.02022791497334
       -22.5321429885962        63.8127271338039    -2.8040770160693
       -22.5334423162079        63.8121390892095    -3.73264715843535
       -22.5347683978057        63.8115515442638    -4.73583339163022
       -22.5361464510062        63.8109706649606    -5.8453427563493
       -22.5192368568506        63.8191773282516    -1.67098005620803
       -22.5205835243947        63.8183487353914    -1.40588683226111
       -22.5218692020307        63.8176007090685    -1.20937652701369
       -22.5231340674167        63.8168941968393    -1.07352188508787
       -22.5034400758656        63.8296238925475    -1.29007862268277
       -22.4600093700092        63.8308162799594    -1.88915085191215
       -22.4608230842148        63.8298460411195    -2.24231836499736
       -22.4614356035417        63.8289543233334    -2.58082086441292
       -22.5489252865294        63.8058930076981    -12.1859693341845
       -22.5475167258375        63.8051613423388    -14.3657831084641
       -22.5462122868376        63.8044582650702    -16.1779105079936
       -22.5449376661327        63.8037683358942    -17.4159719414466
       -22.5436690175152        63.8030850872107    -26.9956005753824
       -22.5424023660325         63.802407857234    -31.3495017929042
       -22.5411339039678        63.8017340834124    -35.9023964836611
       -22.5398612961795        63.8010609440423    -40.6042332542571
        -22.538585956448        63.8003880634871    -45.3622638221938
       -22.5373102390793        63.7997161741568    -50.0742924375988
       -22.5360342468236        63.7990455847171    -58.6517687550147
       -22.5347565150265        63.7983760133862    -60.2130130794306
       -22.5334768057321        63.7977067508201    -62.6463484624418
       -22.5321915195513        63.7970368895054    -65.8738145039964
       -22.5309098633561        63.7963665261983    -69.4373350461175
       -22.5296231621755        63.7956955964814    -73.0676131336725
        -22.528335299932        63.7950287053895    -76.5572133545628
       -22.5270550248642        63.7943574232374    -79.7784845158845
         -22.52576015396        63.7936821365646    -82.6854488793745
       -22.5244751426591        63.7930070093699    -85.1617635272839
       -22.5231703680359        63.7923160788073    -87.2094630223841
       -22.5218856170889        63.7915775249423    -88.7105593106295
       -22.5189364233445        63.7910961641006    -91.61545209149
       -22.5173519172734        63.7909808340373    -92.3479499561187
       -22.5154922426214        63.7908027834292    -93.3007085707875
       -22.5135894685318        63.7906021633945    -94.1757729932705
       -22.5116795602188        63.7903946325742    -95.0439422324738
       -22.5097723238753        63.7901850352379    -95.9146870490787
       -22.5078689339724        63.7899746110646    -96.7772699275204
       -22.5059711833326        63.7897647497547    -97.6040163495231
       -22.5040733420458        63.7895555636733    -98.3662654825708
       -22.5021781989747        63.7893471051554    -99.036945242481
       -22.5002836132891         63.789140834516    -99.6036834271531
       -22.4983904726561        63.7889408769455    -100.069595651018
        -22.496493886511          63.78875425927    -100.448158442407
       -22.4945904284285        63.7886051877633    -100.759239709552
       -22.4926793255317        63.7884918970012    -100.995256539861
       -22.4907636537321        63.7883903224487    -101.173736693043
       -22.4888424418203        63.7882941288325    -101.306159758644
       -22.4869153330176        63.7882006088233    -101.39420958926
       -22.4849841366442        63.7881085119842    -101.442903757107
       -22.4830510464696        63.7880171314742    -101.465008428828
        -22.481116361173        63.7879259995075    -101.476349920717
       -22.4791803371532        63.7878351888947    -101.488638028396
        -22.477243615978        63.7877445012157    -101.506494670106
       -22.4753087220305        63.7876535937063    -101.529661066183
       -22.4733631656479         63.787560813065    -101.559953464429
       -22.4714267756381        63.7874709063543    -101.604817890844
       -22.4694860125305        63.7873768260425    -101.681213568234
       -22.4675405653266        63.7872817633089    -101.805557579171
       -22.4656086909965        63.7871896952572    -101.982933913887
       -22.4636789618154        63.7870950032536    -102.218515522563
       -22.4617429186287        63.7869999945347    -102.526753127911
       -22.4598391199602        63.7869059639275    -102.916520765316
       -22.4580184456153        63.7868286897725    -103.315465571452
       -22.4562729205818        63.7868782292963    -103.364057867767
       -22.4544675022487        63.7870619295639    -103.128719891565
       -22.4525711326724        63.7872657163487    -102.937406000446
       -22.4506497385944        63.7874698923329    -102.806445901136
       -22.4487155128789        63.7876749330253    -102.68087029718
        -22.446777245553        63.7878795215962    -102.508470469374
       -22.4448406789493        63.7880823437433    -102.275211165564
       -22.4428939110419         63.788284795521    -102.00218533198
       -22.4409571521057        63.7884879820319    -101.724223716213
       -22.4390159674805        63.7886885188724    -101.464023133863
       -22.4370803109873        63.7888914197386    -101.238821582115
       -22.4351369287031        63.7890912319452    -101.065641906545
       -22.4332073296492        63.7892888208882    -100.968000841465
       -22.4312924327983        63.7894921919452    -100.965664043249
        -22.429402675771        63.7896925438112    -101.071549334915
        -22.427618134619        63.7899149974048    -101.266752991027
       -22.4619573583546        63.8280571508355    -3.07153353479971
       -22.4625522733526        63.8271491499593    -3.74016116051616
       -22.4746188297057        63.8268171637838    -2.35745064092359
       -22.4767829149365        63.8269917448286    -2.42870831173321
       -22.4832985704929        63.8275176446208    -3.10354472811412
       -22.4854470102645        63.8277081969331    -3.15332293422929
       -22.4789533014696        63.8271652175071    -2.64078801843043
       -22.4811232840419        63.8273379518861    -2.89970717947024
       -22.4702960024152        63.8264621515569    -3.00787937345567
       -22.4724621792616        63.8266414742142    -2.51616558647906
       -22.4087536182407        63.7960046915705    -89.6977384331605
       -22.4074916496752        63.7966715516639    -88.1098186920357
       -22.4062727313241        63.7973696337911    -86.4957200386493
       -22.4050512478827        63.7980801091226    -84.9070852028267
       -22.4038250531129        63.7987946822711    -83.4295616322589
       -22.4025856526437        63.7995135822226    -82.0975376626156
       -22.4013553134779        63.8002293949052    -80.9177497248814
       -22.4001114950804        63.8009484173755    -79.8367990479907
         -22.39888179814        63.8016630208202    -78.8151945001422
       -22.3976442829614        63.8023735092488    -77.7855717450821
       -22.3964161370981        63.8030835746589    -76.7205945771754
        -22.395183274596        63.8037899254662    -75.6179140771826
       -22.3939722029889        63.8044811575266    -74.5153136111879
       -22.3928171383156        63.8051494193129    -73.4507726275655
       -22.3919316252793        63.8057296958851    -72.6554886147895
       -22.3921276571508        63.8065018975169    -71.9057679017633
       -22.3915681485794        63.8073497149158    -67.013701721993
       -22.3912431233045        63.8081579236924    -66.4776829921876
       -22.3909255816669        63.8089764745252    -65.4479208780447
       -22.3906057762221        63.8098063239669    -64.188291955076
       -22.3902754940745        63.8106327799735    -62.9386053863822
       -22.3899550036701        63.8114623057356    -61.7827763258241
       -22.3896207920274        63.8123039118924    -60.7141841903049
       -22.3892465077197        63.8131850557942    -59.7035498508996
       -22.4656497310629        63.8260430865533    -4.83950426463307
       -22.4680955283763        63.8262734927972    -3.9078378659063
       -22.4259692884114        63.7903096344478    -101.154551405755
       -22.4242685675786        63.7908525135795    -100.808328120503
       -22.4224888678779         63.791403563459    -100.301853430401
       -22.4207149459211        63.7919684691375    -99.6513357304085
       -22.4189357686287        63.7925367087884    -98.8881383552388
       -22.4171546503971         63.793109734447    -97.963265583322
       -22.4153814869665        63.7936826822485    -96.762263605703
       -22.4136200208927        63.7942539475605    -95.165383505052
       -22.4000628621312         63.822029381149    -21.5188258733313
       -22.4011175396846        63.8228620834274    -15.5821401312484
       -22.4021857602282        63.8237065978178    -14.9760520511665
        -22.403282133143        63.8245761033266    -14.2749251413754
       -22.4118794089848        63.7948242342064    -93.1329295005184
       -22.4102144206706        63.7953955879355    -91.406511741871
       -22.3906439456732        63.8145298903091    -57.4158165217396
       -22.4127228514914        63.8260417572024    -12.2401118127959
       -22.4140057342255        63.8267341133075    -11.5529977425104
       -22.4152673940774        63.8274232979225    -10.331980769329
       -22.4163976150021        63.8281221202115    -8.78233548563605
       -22.4172215334289        63.8288010733462    -7.644200283843
       -22.4173416243155         63.829392951586    0.2
       -22.4175738084315        63.8298625817675    -4.59627512516248
       -22.4178231003818        63.8303190875288    -3.60393977586518
       -22.4180718034861        63.8307724388336    -2.61563765895276
       -22.4183064033808        63.8312207681262    -1.66665758394768
       -22.4185310182286        63.8316631027972    -0.747492115127723
       -22.4187387928711        63.8320854913693    0.113442095789499
       -22.4189153912372        63.8324591409925    0.248885429501215
       -22.4190704264622        63.8327880474718    0.330965375271649
        -22.419230005149         63.833097196997    0.434865132881985
       -22.4193995194705        63.8333972494762    0.585850358838163
       -22.4195755152027        63.8336961632352    0.590846244722707
       -22.4197534335779        63.8339953883441    0.675513959908756
       -22.4199296117432        63.8342948894007    0.789107596356113
       -22.4201054734978        63.8345943626401    0.738759078250553
       -22.4202792747941        63.8348932818223    0.2
       -22.4204521167773        63.8351907666399    0.2
       -22.4206240820066         63.835485435696    0.590204281469814
       -22.4207965413529        63.8357745447048    0.540879107419759
       -22.4205393199466        63.8362431027531    0.605134209634282
       -22.4201326847666        63.8364214977888    0.712532845941618
       -22.4197358724774        63.8365948541712    0.74539757494591
        -22.419344802872        63.8367663510376    0.420229134747009
       -22.4189580932203        63.8369374284417    0.178420136553518
       -22.4185769123659         63.837108440629    0.112844052149682
       -22.4181979319593        63.8372796688178    -0.13246375800772
       -22.4178155504237        63.8374503407643    -0.0522562344009772
       -22.4174371268114        63.8376227961204    0.116057234773944
       -22.4170577611889        63.8377942185442    0.0528895705117455
       -22.4166781824581        63.8379666172305    -0.279850114142476
       -22.4163001951754        63.8381385249118    -0.730280956967977
       -22.4159261235663        63.8383098072316    -0.533948457109385
       -22.4155553002203        63.8384854316541    2.55980788807121
       -22.4151873268997        63.8386652041353    2.22562144771434
       -22.4148144348036        63.8388511227411    1.81872663099047
       -22.4150213198396        63.8391271140435    1.78898498671784
       -22.4152324516021        63.8394094078782    1.75809411712601
       -22.4154413900401        63.8396966937585    1.64303661962191
       -22.4156386375139        63.8399871933359    1.37550119504826
         -22.41583660164        63.8402775209817    1.1087225012151
       -22.4160285986295        63.8405649000737    0.678762462439918
       -22.4162264631762        63.8408528112204    0.461827206104565
       -22.4164268130642        63.8411377355251    0.367650459762924
        -22.416650060155        63.8414233955592    0.419950058167213
        -22.416941618899        63.8417347555899    0.807934424034599
       -22.4169076424266        63.8420177588776    0.804162284071387
       -22.4174677285425        63.8419634149216    0.810728166829937
       -22.4181454494007        63.8419290073951    0.815548480631795
       -22.4188301339391        63.8419020598156    0.818661990253145
       -22.4195146782744        63.8418783067352    0.817959684412356
       -22.4201926349458        63.8418565136643    0.814835854363705
        -22.420866850153        63.8418363137796    0.809381207120458
       -22.4215413008372        63.8418152014826    0.805286784201569
       -22.4222106808846        63.8417941500886    0.80156247791874
       -22.4228845681469        63.8417716217284    0.798861014254279
       -22.4235611459387        63.8417438761048    0.795548283561258
       -22.4356147021311        63.8352077347548    -1.49757632905144
       -22.5132604893892        63.8200922054798    -2.43860776810989
       -22.5377383920541        63.8104293706742    -7.44480885659561
       -22.3916521310067        63.8152013715885    -55.301387381858
       -22.3927104269205        63.8160329385118    -51.9234629640078
       -22.4632684588466         63.826265869942    -4.6041168153458
       -22.3937658966477        63.8168871377188    -47.8392768358268
       -22.3990148037597        63.8211830452144    -25.1128556899513
        -22.411410503393        63.8253329090303    -12.5032874653311
       -22.4209749072673        63.8360462434856    0.501326992283571
       -22.4243590594896        63.8414001713763    0.87612528568014
       -22.4248699347354         63.841261159181    0.895913206966692
       -22.4253675791856        63.8411111085609    1.26155095698226
       -22.4258599958109        63.8409569416619    1.65932670578948
       -22.4263426865197        63.8408061053268    2.03039036206635
       -22.4268220708164        63.8406557834258    2.38841389878094
       -22.4273012884075        63.8405037724706    2.73510036287432
       -22.4277696697013        63.8403524931551    3.03265215992084
       -22.4357554669223        63.8349538488732    -1.56613011628811
        -22.436317254689        63.8348930235452    -2.0265141852194
       -22.4368709515051        63.8348298214771    -2.66717656731927
       -22.4374206172498        63.8347645603126    -3.25119712978723
       -22.4379666746526        63.8346966426699    -3.54050919827571
       -22.4385118140262        63.8346272337704    -3.57066748117643
       -22.4390545549408         63.834558587222    -3.5122092613988
       -22.4395967782172        63.8344898861454    -3.41998053325957
       -22.4401403539423        63.8344217530318    -3.32552348601819
       -22.4406788039311        63.8343546019906    -3.24705395050416
       -22.4412175563203        63.8342863915025    -3.17204909623768
       -22.4417647840885        63.8342164568471    -3.11991605115052
       -22.4423163347718        63.8341459931699    -3.06806277545721
       -22.4428519428136        63.8340735007666    -3.0341542116334
       -22.4433864723606         63.833992582052    -3.00160058963217
       -22.4439431017535        63.8339017821678    -2.97983515742954
       -22.4445269528645        63.8338039076096    -2.95765406475685
       -22.4282388732407        63.8401994144094    3.2689913173753
       -22.4287129137054        63.8400445664024    3.51299751523519
       -22.4291863858773        63.8398881782252    3.70388888843468
         -22.42965582468        63.8397314819781    3.90271443077591
       -22.4301229655504        63.8395726077625    4.05349348307703
       -22.4305855372248        63.8394090491156    -1.18523883402829
       -22.4310325021783        63.8392359581743    4.22478478229417
       -22.4331514533372        63.8372632101834    -0.341253557122299
       -22.4333959108073        63.8370099467398    -0.631172038556361
       -22.4336414369216        63.8367565203831    -0.852280564545684
       -22.4338844586556        63.8365036442016    -1.00734572059088
       -22.4341263220161        63.8362523074393    -1.10526778139974
        -22.434366806475        63.8360014354476    -1.15930409937719
       -22.4346004981379        63.8357519792886    -1.18745094829905
       -22.4348230072643        63.8355044746509    -1.21104876389062
        -22.435019974981        63.8352585804341    -1.24236994067191
       -22.4316641627621        63.8387797672277    -1.18867511953612
       -22.4319196497746        63.8385280729204    -1.2866781455334
       -22.4321699965238         63.838275169553    -1.65737477442406
       -22.4324172870325        63.8380223784867    -2.03832141351105
       -22.4326628441027        63.8377695030808    0.368125081532533
       -22.4329071896459        63.8375165183987    0.00697295236028569
       -22.4451563763899        63.8336981235661    -2.94657798267827
       -22.4458316097226        63.8335775129449    -2.93704144484202
       -22.4465700872314        63.8334442636672    -2.93375167481806
       -22.4313911671884        63.8390263199775    4.34872033465895
       -22.4474039752656        63.8333002590979    -2.93627428861352
       -22.4483039382235        63.8331499146688    -2.93313206168154
       -22.4492532888287        63.8329938454638    -2.95333682022775
        -22.450211855108         63.832839787187    -2.93972218059754
       -22.4511890842606        63.8326878391676    -2.87593267385002
       -22.4521893671899        63.8325301254258    -2.79247670895846
       -22.4532131758779        63.8323697885547    -2.67633685062654
       -22.4542749649577        63.8322160202252    -2.5459083256375
       -22.4553654408264        63.8320863028568    -2.23717635992233
       -22.4571578996637        63.8317814881606    -1.8776794135504
       -22.4585031102257         63.831493386681    -1.7757004211451
       -22.4563100857732        63.8320389102804    -2.00021377021938
       -22.4889344562698        63.8272550144632    -3.33813806498614
       -22.4909495388277        63.8274863177276    -3.21182739636302
       -22.5051686886743        63.8289106792956    -1.16302432655562
       -22.5072516171061        63.8285127892071    -0.912440885347892
       -22.5090785286011        63.8281009823505    -0.797349740485804
       -22.5093185764042        63.8272082061627    -1.01741968450044
       -22.5096522358229        63.8263498247576    -1.11387874502134
       -22.5099656818078        63.8255110442406    -1.19328608072248
       -22.5102647366279        63.8246788581872    -1.24509600283715
       -22.5105261493542        63.8238558861646    -1.51139781324636
       -22.5107601678906         63.823030527777    -1.77794568165575
       -22.5109699976638        63.8221880671224    -2.06652423964008
       -22.5111757504622        63.8213279517302    -2.402195234887
       -22.5113803846939         63.820443137506    -2.82651077209132
       -22.5151948798934        63.8196960398755    -2.38568864613523
       -22.4929428262875        63.8277132924669    -3.09068028654965
       -22.4949101625133        63.8279336672868    -2.92326015088722
       -22.4968721567673         63.828150609629    -2.68526868107929
       -22.4988373524767        63.8283592542327    -2.37719731913745
       -22.5008098839859        63.8285610294302    -2.02016367401255
       -22.5028473356489        63.8287493792301    -1.63898645608353
       -22.4868585787462        63.8270210736895    -3.48578040342412
       -22.5238074421181        63.8154426426871    -1.2041237491658
       -22.5251173787744        63.8148432695381    -1.19309802112313
       -22.5264123058374        63.8142592932336    -1.39850608734935
       -22.5276974173061        63.8136796560089    -1.79585314449312
       -22.5289791825494        63.8130978859194    -2.34532317178559
       -22.5302579452772        63.8125114005156    -3.03845126262284
       -22.5315526379177        63.8119168732524    -3.90617692100895
        -22.532869028031        63.8113173201868    -4.93896443881705
       -22.5342243534054        63.8107136520584    -6.10757983144725
       -22.5356741854973        63.8100992924397    -7.50001493304933
       -22.5183365775128        63.8182106092052    -2.30843302946221
       -22.5197709908639        63.8174499599351    -1.97780464004975
        -22.521133732298        63.8167373253063    -1.71609786600138
       -22.3969161668668        63.8194668404434    -33.7646728325325
       -22.4590159098199        63.8300120658982    -2.46945809945102
       -22.4596520427923        63.8292100712244    -2.69153108599202
       -22.5467866829497        63.8060595991381    -14.0966585148808
       -22.5454664166851        63.8053181982381    -16.2424018630156
       -22.5441952361091        63.8046018249308    -17.5892684788366
        -22.542946666664         63.803907320023    -26.1073175830994
       -22.5416979750729        63.8032237676269    -30.3129886093828
        -22.540443677074        63.8025450548188    -34.7769254380284
       -22.5391855077744        63.8018709341875    -39.4397752047035
       -22.5379227330562        63.8012001637975    -44.1757213052238
        -22.536654168106        63.8005305686741    -48.8773611912362
       -22.5353807449968        63.7998614418508    -53.4823495781874
       -22.5341034782642        63.7991929123405    -60.8326352322846
       -22.5328240187932        63.7985245709361    -62.9395029611677
       -22.5315366461556        63.7978552023483    -65.8305503863047
